# 3D point list with one line of data per point:
#   POINT3D_ID, X, Y, Z, R, G, B, ERROR, TRACK[] as (IMAGE_ID, POINT2D_IDX)
# Number of points: 314, mean track length: 5.1002523291925463
10599 -0.84384202589100232 1.0194315599716159 2.9493030172625625 200 177 158 0.83375779359429991 33 1266 97 1363 36 356
326 0.39019092981743619 1.0953928532641815 2.1731220404342162 119 99 59 0.31475959597894149 58 437 100 1158 87 1186 34 405 17 387 75 311 79 239 80 920
5511 -0.6469555115340474 0.53670166301732236 2.2831492566047662 97 73 50 0.14765288056259376 60 2068 43 2143 80 1871
10598 -0.3418478010665767 0.47948134222123606 2.7514982920817781 131 139 72 0.65360250517657559 7 962 97 1358 36 342
325 -0.71609346433853294 0.85621988180070385 2.7522724451589369 71 122 55 0.60409871518485259 58 568 87 1178 3 888 75 536 62 1602 8 1111 79 521 60 1389 51 430 43 1733 48 347 33 701 41 892 50 262 7 458 97 862 21 204 94 199 98 478 13 214
5509 -0.58267631073481774 0.42927168261581117 2.2754682832980357 255 254 214 0.16224939567954608 51 794 43 2139 48 712
10596 0.47434452006786276 1.1357947538259692 2.5852701291355755 0 0 0 1.0844634938434921 7 908 97 1346 36 327
323 0.18266016762688178 0.93274975235393642 2.6302436563054821 52 92 46 0.17626848457434199 58 1151 100 1113 87 1171 73 362 17 316 62 954 59 883 96 776 8 739 81 618 41 137 30 138 55 136 68 391
5508 -0.27809730520991538 0.13306708666318831 2.2855732911812976 255 251 236 0.625078636984151 60 1997 43 2098 80 1486
10595 -0.79126224588112304 0.76212015881156014 2.9090812576655898 66 115 44 1.2125769364671422 7 894 97 1339 36 322 33 1185 21 965 98 1082 53 297
322 0.35379568295284036 0.90946743263904539 2.6577840935212085 73 118 62 0.091342907632470702 58 1135 87 1160 37 1109
5507 0.12813197965352421 1.1184122623054777 2.6128099484069973 76 137 67 0.25094044061327392 79 1426 43 2097
10594 -0.83005137164655252 0.94422915857959733 2.9370145715739584 78 116 50 2.0106839851827374 7 938 97 1338 53 227 1 798 16 605
321 0.03541576805629304 0.88655936871416674 2.6209783525794625 183 168 108 0.21025353516091441 58 1149 87 1158 34 390 99 1119 75 394 62 1002 61 981 59 825 32 728 8 752 30 127 55 512
10593 -0.31290962461944205 0.22601208869474568 2.8548505628751455 29 47 17 0.39625660808470853 7 939 97 1336 36 263 21 936 94 943 1 877 69 131
320 -0.69240162588868492 0.79289010698388862 2.7636912919677212 156 140 82 1.1251490810251359 100 1080 87 1157 3 1277 61 1262 37 1182 62 1598 59 1068 8 790 59 645 32 1239 8 1539 79 985 51 425 41 1205 76 292 49 733
5504 -0.14218707994769339 0.096996018980151172 2.2604104334901729 133 138 94 0.66665171292346792 60 2415 43 2080 48 648 51 733 33 976
10591 -0.39292297416785349 0.5569098375782352 2.7199009716124674 155 152 91 0.65415206644796486 7 935 97 1329 21 885 98 989 69 39
318 0.44360175922696365 1.0227079940418629 2.1663977872331435 255 251 205 0.21338731198120497 100 1129 87 1153 73 378 17 360 3 580 61 1086 62 163 59 997 96 860 8 101 32 743
5502 0.40687484524766071 0.91639332456176581 2.6606339413364104 202 188 128 0.64481833960373758 51 707 43 2074 48 615 41 1277
10589 0.50181628407084422 1.1256575824772528 2.6775511959324274 163 216 115 0.41141439310271644 7 946 97 1307 36 329 50 827
316 -0.43070598996904574 0.82606876969654164 2.6484034180153833 135 162 84 0.4143451277506367 100 1083 87 1150 61 871
5403 -0.56128034201898069 1.2311204145562649 2.7232268054787658 208 203 131 0.23029680539620156 84 475 43 1294 80 1265
10588 0.56512747610497149 0.61492151223041802 2.3116811111654796 0 0 0 0.85460557899352185 7 907 97 1306
315 0.33082121693060063 0.88271311084836934 2.6563045998775188 60 115 60 0.18134727757699173 58 1129 100 1098 87 1149 73 356 34 396 3 996 61 1011 37 1106 75 324 62 914 59 943 96 827 8 760 32 773 76 221 49 650 30 159 55 521 4 408
5402 -0.56851408401326053 0.89258325324115928 2.6889365545289525 65 99 48 0.042117091693559094 60 1340 43 1277
5499 0.033816139606309803 0.11952877438897383 1.861039071900058 62 117 60 0.048491573319843675 75 1402 43 2058 48 609 51 695
10586 -0.40360348397874624 0.43867332701292128 2.763835495864575 62 106 41 0.19116806025004562 7 886 97 1290 36 258
313 0.28626254847092247 0.85500200592879516 2.6532279055209687 51 109 57 0.2137027860520902 100 1088 87 1141 73 349 17 297 75 325 62 920 59 919 96 813 8 769 32 770 61 999 81 300 41 560 76 214 49 642 30 160 55 533
5400 -0.21295066177597086 0.12402997262354794 3.5843394470438241 255 254 221 0.32797594988657808 60 650 43 1268 33 395 7 537 97 932 18 983
5498 0.5761977699050026 0.66733918258212022 2.1985809106123355 88 97 51 0.38149161574768248 60 2233 43 2053 48 755
10585 -0.67602261008111297 0.60213174593905239 2.6328410554402182 92 74 55 0.49133809660374905 7 885 97 1286 36 318 33 1225
312 0.25158723001257 0.84574875232405144 2.6510760164877079 53 103 53 0.29887894048771785 100 1086 87 1139 73 339 34 377 17 292 3 973 61 990 62 925 59 908 96 800 8 770 32 764 41 564 76 205 49 633
5399 -0.49483527737453392 1.103818503593573 2.6736647294514753 235 219 138 0.14015776265866717 79 506 99 553 43 1266
5495 0.22708488702948257 0.097279628054277839 1.5687849314028666 103 88 66 0.32992486633440787 60 2191 43 2036 80 1983 48 751
10582 -0.4280039204591165 1.1126172414621105 2.6481737580532823 109 209 91 0.6855787137302336 7 925 97 1276 36 308
309 -0.71969447836860612 0.73229200778657721 2.7160723044255466 243 234 210 0.23117502332327025 100 1052 87 1129 62 678
303 0.11181255614814803 0.71796978822161717 2.6534436513151354 110 123 71 0.19310881646339029 100 1044 87 1098 49 617
5390 -0.61154173214416108 0.46189614366203147 2.2824018673891193 255 254 238 0.16349125788866684 60 492 43 1206 80 1108
10575 -0.21631854125012839 0.060019987931270946 3.0697259383354623 246 225 145 0.98108604496753027 18 1561 94 863 98 1036 69 60
302 -0.34827526551422061 0.65597074767230379 2.6898580599513005 110 142 71 0.25624170524950818 100 1034 87 1096 73 253 61 822 62 1118 96 626 32 713 75 410 79 405 43 1207 41 639 8 823 7 187
5389 -0.28978327346385135 1.1150282436487429 2.6294275538776062 67 110 53 0.29729034773526913 8 690 43 1202
5486 -0.65214464470251865 0.51472402413100993 2.2810560616244122 238 219 176 0.18602008325712188 51 634 43 1965 80 1870 60 1725
10573 -0.73866955062573314 0.78910495626349952 2.7917001699474562 44 68 26 0.22461739426475066 18 1749 97 1240 36 265
300 -0.51288028043595446 0.57409681099159382 2.7382730740911527 182 165 92 0.24409378231274692 100 1012 87 1082 73 224 58 1118 34 289 3 836 37 1107 32 704 97 632
5387 -0.22937079086367157 1.1401239194217327 2.615724582477041 131 145 85 0.032780318096691186 60 1265 43 1173
5485 0.053930136095796444 0.82377099212769644 3.3795518008374161 208 196 120 0.14635398920926282 3 1623 43 1962
10572 -0.47740397159325265 0.47666154341029587 2.7668964652170298 152 144 84 0.24634747469478255 7 831 97 1237 36 183 21 755
299 -0.51261568673503488 0.57246006005802896 2.7405913265170212 182 165 92 0.12585728171576407 58 1117 87 1081 73 223 34 290
5386 -0.2008316185702953 1.2071245235394532 2.6274627336588563 245 231 142 0.34816429462090448 32 56 43 1170 48 211 10 893
5481 -0.30416490674249691 0.86057783997933401 2.6450858077609078 61 102 53 0.20374301512824211 51 608 43 1945 48 523 38 512
10568 0.034544142580548026 1.0672699393271696 2.5923133464379005 255 255 172 0.05919622405460611 7 790 97 1201
295 -0.53186467803603033 0.49178870490378179 2.7689643240908319 74 123 53 0.20252797150813551 100 984 87 1060 17 164
10567 0.41437350327801958 1.0416352918023319 2.2143165208597861 94 81 43 0.36819007928302749 7 780 97 1190 36 127
294 -0.53186467803603033 0.49178870490378179 2.7689643240908319 74 123 53 0.20252797150813551 100 983 87 1059 17 163
10566 -0.69485359714692463 0.58733615278293327 2.9998076799438707 205 182 142 0.95226480136123792 7 775 97 1177 38 229
293 0.43261849018240639 0.56847187692154522 2.7370155871508879 75 120 62 0.24746390077382754 100 1002 87 1057 73 259 34 303 58 1066 17 661 3 1315 61 1352 37 388 75 245 59 955 96 1192 8 865 32 1167 11 197
5380 -0.16522215996114309 0.72984490582821049 2.6545399266743233 64 112 51 0.060676014121141902 60 1186 43 1146
5478 -0.55567185735540447 0.37361070551138703 2.2702867678842744 83 131 53 0.39452988784442528 60 2037 43 1937 48 288
10565 -0.20217497680073712 0.084898766840002873 2.9638448070661001 231 210 162 0.76113398537923227 7 773 97 1174
292 -0.35642357846305073 0.51120427154336856 2.7326028374957869 183 164 94 0.1174846603808299 100 988 87 1056 3 831 32 740
10564 -0.5910256246230724 0.46736190207876438 2.865276978352401 65 118 46 0.15683326382906917 7 661 97 1172
291 0.26470270049007893 0.55882671896714753 2.7086295447902442 126 123 79 0.21064231215526005 100 1397 87 1055 73 249 3 1287 61 1318 62 1352 59 1288 96 1132 8 1210 32 1145 11 167 51 161 48 123
5378 -0.098833191057617314 1.1856479209327266 2.6134188131265277 255 255 164 0.17764031485624618 60 1228 43 1143 80 1132
388 0.012215957962980278 0.41645639003135665 2.7346580761568053 157 142 80 0.21114918364917482 58 1061 87 1531 34 748 37 1037 99 1055 75 819 79 286 60 1116 80 405
5475 -0.44791687177291728 0.22718657543721887 2.2587406656520281 169 177 93 0.1667645978619107 60 2009 43 1913 33 1010
10562 -0.52131827882393977 0.40550160523728973 2.8499713322776117 176 163 86 0.35754001132390884 7 659 97 1169 1 754 53 159 16 610 29 623 78 470 89 117 35 261
289 0.084495289437847454 0.52228079140209149 2.7023209797018217 72 127 58 0.24890044413819606 100 989 87 1044 73 234 34 268 3 866 96 727 49 638
5376 -0.13261390661795994 0.95060055188074255 2.6178964840975132 67 118 58 0.09733542653285622 73 357 87 1184 43 1138
288 0.58903269820777948 0.73621754936573924 2.1558117073515217 253 234 137 0.22241510290483393 100 1038 87 1043 73 274 34 260 81 279
10561 -0.64528184168046787 0.546906309314798 2.804820059947545 83 113 49 0.32987111590022794 7 769 97 1164 21 763
5375 -0.43322858930555375 0.21188908625198771 2.25360687405044 78 115 53 0.24952729473689386 60 396 43 1115 33 626
386 0.60516848966533787 0.53124560603275417 2.4450925934729266 123 130 143 1.1524366946846949 100 1380 87 1525 17 635 3 1319 61 928
10659 -0.53286440876900998 1.057265944523641 3.7629422431330934 77 129 72 1.2682491480043787 96 964 91 412
5473 -0.43654814218080096 0.2395142143716078 2.2461744027948822 67 109 49 0.21432991628741629 60 1641 43 1908 80 1505
10560 -0.63709191412195942 0.57203326157896728 2.7950914625862433 119 160 76 1.0872717649539057 7 654 97 1163 94 210
287 0.5888532854410905 0.73639875333980631 2.155869799262339 253 234 137 0.18721781442884888 100 1037 87 1042 73 275 34 261 17 260 59 1036 96 1222 3 1383 8 780 32 1153 49 904 30 391 68 614
5374 -0.049555763405043265 0.86039635214801213 2.6266017008176568 54 106 55 0.22785140599371023 8 761 43 1111
385 0.33063853393173392 0.4435070516897478 2.593686412941552 91 76 48 0.22306333269439729 58 1961 87 1521 73 685 34 742 37 1973 79 755
5472 0.018497295897510951 1.3793382719831675 2.6261224915502113 130 174 91 0.019131014485529219 60 2080 43 1907
10559 -0.41830986752974164 0.35581929353877856 2.797390715604859 230 208 130 0.35397333833937411 7 766 97 1160 38 645 36 101 24 421
286 0.047663314761489661 0.51635751671238406 2.6996933128378537 81 130 60 0.20753840160873716 100 985 87 1040 73 227 3 859 62 966 75 298 8 886
5373 -0.39528449705298929 0.2325780887772454 2.2406378445876225 97 144 77 0.12831877593658236 60 388 43 1108
383 0.59886070577587569 0.58582423041617726 2.2106206370083639 193 167 145 0.3391011276527045 58 999 87 1517 37 1525 99 988 75 721 3 931 62 1245 59 1387 84 154 79 686 63 278 60 1532 51 45 43 1388 80 862 48 21 33 423 41 851
5470 0.68069735796499298 0.50443622013872913 3.6332263840296841 67 121 53 2.6426359392690166 84 1156 43 1888
10557 -0.47999014814075691 0.6201873449015437 2.7152395399460136 76 133 54 0.1707944389183792 7 746 97 1144
284 0.24053346400221096 0.50480122847829068 2.7198307987905492 146 138 85 0.32530866266326558 100 981 87 1030 17 183 3 876 61 855 75 265 59 1277 81 229
379 -0.59874361358070505 0.4457041200210915 2.274564818384686 255 255 226 0.54493655958954745 58 1565 100 1356 87 1509 34 178 17 591 3 1188 61 1176 37 1573 99 1487 75 870 62 1828 59 1065 8 1223 63 872 11 19 76 288 49 440 30 328 68 690 82 121 64 135
5466 0.49780722186327797 0.94865790329216304 2.678203917086091 213 197 132 0.73928583850639529 60 2006 43 1848 80 1488
10553 -0.57128250649264112 1.1059458124149752 2.6967451201315775 0 0 0 0.00069980333453720537 50 607 99 2126
280 -0.075371237515812997 0.29994457311057854 2.7802267929102467 133 125 67 0.33574881106174859 58 364 87 994 73 166 17 126 3 1201 61 1201 59 1185 96 1036 8 1263 32 1148 48 210 81 130 7 441 15 346 16 277 23 300
5367 -0.19826111249704526 0.028303465157975632 2.1793092152348281 194 193 195 0.49030695334472502 60 1578 43 993 80 951 77 455 52 560
5465 -0.057076656142031945 0.096234229674497546 1.9675698215779869 117 142 93 0.26650234890156127 60 1946 79 1118 43 1828 80 1763 77 438 57 487 52 844
10552 -0.57134965321329456 0.40669553580062623 2.3118299380689615 149 108 63 0.24346384439820237 18 1321 97 1127 53 11 1 604 16 387
279 0.23603666818446981 0.39229187439679336 2.5773346220481264 84 70 39 0.7020951265588643 58 1554 87 993 34 733 37 1968 99 1520 75 210 84 744 43 973 80 1476 57 208 77 163 25 1764 19 948 52 625 65 595 93 587
5366 0.4300539735548069 1.3610759189247033 2.6128726926965244 157 140 120 0.31171852219495683 79 851 43 982 57 254
5464 0.37487994072512631 1.1030962915024241 2.1780183159248705 248 233 193 0.28071429278652299 51 89 43 1825 48 392
10551 0.68351842516914896 0.55490317842742487 2.9236037378769018 255 255 214 0.066481434347283042 7 592 97 1122
376 -0.17084854329806035 0.19213530560432349 2.8311102649487752 200 190 109 0.45410844567504327 100 1688 87 1495 73 1016 17 1137 11 366
5463 0.38684927777864875 1.1176537372900095 2.1739220173109506 124 93 64 0.45172246572006869 51 492 43 1821 48 48 33 416
10550 -0.28789878200698377 0.051670505642373743 2.2757339893844462 128 96 58 0.99434754578694762 7 731 97 1119 36 50
5460 0.077204042286394797 0.16278574150837088 1.8818169960535576 74 130 72 0.11038246082840561 79 1109 43 1810
10547 0.44848273938520267 1.0082889156186046 2.2838538596107734 0 0 0 2.2129082855385804 7 689 97 1089 53 122
274 0.59986254109581927 0.4742920020460335 2.2694380632856141 37 75 34 0.74167915102577431 58 972 87 972 73 180 37 950 99 972
372 0.4273103862770935 0.45809738413318513 2.1669673712301836 78 158 88 0.10854307952486444 58 1939 100 923 87 1484 73 661 34 701 17 148 75 715 81 524
5459 -0.13081348161211159 -0.037436628096703145 1.6348851030456411 199 197 205 1.4452123019156145 62 1322 18 1004
10546 -0.23604515454275987 0.13187630302976749 3.618816850669369 255 255 222 0.53337699290046636 7 680 97 1075 53 114
273 0.5344639892464953 0.47316851487581735 2.1676168005258192 89 175 98 0.61671068710616539 58 1512 87 963 37 1498 99 1829 84 666 63 1612 10 1383 86 667 74 1134 25 1391 19 554 27 1519 45 284 42 622 12 483
370 0.58174337200691073 0.43966728322446658 2.0763733145166765 177 201 148 0.28795368349536765 58 1490 87 1478 73 1028 34 1069 37 1483 99 1818 75 125 84 650 25 1373
10544 -0.27518120531415668 0.096389090455081414 3.0293517196551454 62 38 16 0.75736006496943742 33 883 97 1065
271 0.18994253143981102 0.0053989999503161468 3.0056563412872452 77 153 88 1.0310972802522511 87 937 17 65
5455 0.38256489260267768 0.38711889769475771 1.9779950388484042 172 196 143 0.26348433362260187 60 2216 43 1790 80 2000
10542 -0.56094712370303046 0.48884447033193901 2.7736660042101251 56 95 37 0.24221401775872384 18 1549 97 1036 36 105 33 1036
269 -0.11075454550404862 0.15872134691762102 2.5194714570103351 84 90 74 1.7674985159334906 100 167 87 933 73 1002 58 1945 62 1397
5356 0.64802586060636247 0.57112399916365719 2.3771882296448994 172 175 188 0.17942609653964456 60 970 43 863 57 163
266 0.30420226902818448 0.36062138384861731 2.0298669735424051 74 150 84 0.06784621321209891 58 926 87 922 75 141
10539 -0.32187869315145606 0.55013544184318919 2.7178336324511378 68 109 47 0.13602363994278821 7 632 97 1012
5353 0.55482712426652481 0.13116931120435998 2.2567867532097097 67 127 71 1.0155690928583123 99 183 43 843
5451 -0.70507571893751908 0.77567303252700026 2.7662537353945327 58 102 44 1.1772072870762185 62 679 43 1728 80 1674 48 346 26 1352 93 680
10538 -0.12870424270637806 0.41220919297227954 2.7424218910235272 64 114 46 0.073378965132452123 76 723 97 1011
265 0.56679125189459734 0.40719257836638612 1.9386411727048298 190 216 156 0.21966336252518556 58 910 87 919 73 130 34 682 37 882 84 85
5352 0.59778166870101668 0.56368376096020556 2.2020421923213371 174 154 139 0.35477814839189165 60 185 43 840 80 859
5449 -0.58617538265754165 1.1545866221186032 2.7133058377370078 88 160 72 0.16677863720977981 37 1772 43 1713
10536 -0.48079749594521737 0.84138175987515695 2.686108342323474 95 164 71 0.18060683939438721 7 621 97 1007
263 0.66348478083474327 0.44835543349540152 1.6768562574412886 255 255 255 2.0107488372748761 87 899 73 1007 99 1392
262 0.58528678723443384 0.36996527703812454 1.8427327411965349 68 126 67 0.46548826047721725 58 1449 87 898 73 111 3 227 61 311 37 1442 99 1400 75 78 59 613 84 63 10 1086 67 673 45 31 46 407
5349 0.66049200432050592 0.39626252718824917 1.7729213883819788 211 213 225 0.074641380774887522 79 598 43 789
260 0.59701666579000479 0.36540303911756283 1.8336058747166555 176 182 137 0.17774206806082762 100 881 87 891 73 108 34 97 17 104 3 222 99 858 81 497
5347 -0.7757014030134487 0.72525789969180765 3.0717649149173489 184 160 126 0.53484978522171378 60 791 43 762 80 1708
357 0.41933500848426286 0.19287489855332582 1.5717075975067201 101 79 58 0.46051482539095528 100 832 87 1398 73 573 34 601 17 50 3 769 61 185 75 629 62 723 8 521 32 559 11 47 51 3 81 36
10531 -0.24062452114195226 1.0999567308296685 2.6294594515903058 110 200 91 0.59026492895440574 7 587 97 975
258 -0.30487347724205616 0.090076546194533313 2.2841351752848462 255 251 160 0.41400286987569201 100 844 87 887 17 52 61 685 62 1026
127 0.17614909778021889 0.074167635789973027 1.6821829379106454 54 109 60 0.160308129558144 100 56 87 42 75 44 60 54 58 28 80 45
10400 0.66497170483631995 0.47985499368955387 2.0618963840678348 172 174 186 2.0442801393920544 25 2285 77 906 19 1377 58 2484 100 2245 87 2425 73 1545 34 1596 37 2495 99 2385 75 1742 62 2186 61 1959 59 1670 32 1612 8 1683 84 1657 79 1670 63 2221 60 2495 51 931 43 2197 48 747 10 1979 27 2024 26 1886 52 1282 65 1227
5214 0.4351906899980984 1.2892292659772508 2.5429966561761908 242 235 215 0.76761150827222513 79 1565 51 855 43 2221 48 768 77 708 52 1094 93 851 26 1519
126 0.22681835620214599 0.095337550214487685 1.603661659896807 118 103 70 0.72579275760213069 58 829 87 31 37 799 99 795
10399 -0.38728806628355578 0.28918713784951938 2.2526053495819691 191 207 136 1.994411633510996 58 2198 100 1920 73 1233 34 1291 17 1135 3 1735 61 1751 37 2211 75 1208 96 1439 8 1582 32 1474 11 560 81 941 76 788 49 1083 68 716 100 1686 3 1518 61 1165 75 799 62 1082 96 1261 8 1258 32 1326 30 368
5213 -0.026988556599687227 0.097790352205299191 1.9262850801858618 157 163 115 0.3111450537990581 62 2048 51 852 48 777
125 0.24905393294417497 0.11115669838732305 1.5658762627979443 249 246 230 0.19491311069793205 58 14 87 29 37 17 99 11 63 5
10398 0.31042307165487382 1.026196627969761 2.6368875979904134 73 108 52 0.28834000627703171 58 1657 87 1670 73 831 100 1500 17 757 3 1429 99 1596 75 883 62 1367 59 1319 96 1166 8 1069 32 1065 63 1382 11 268 10 1222 49 861 30 346 68 589 41 809 55 483 38 52
5212 0.60862302396317636 0.62018131289718725 2.6889744819881605 203 210 228 0.31030675722999784 62 2038 51 848 48 603
124 0.24813785039340661 0.075587066912448667 1.5207713714940156 252 241 227 0.59870463675326502 100 37 87 11 3 37 61 711 37 5 99 0 59 441 96 769 8 972 32 916 68 435
10397 0.33838029135957748 1.4878854847499485 2.6876706719657673 93 145 61 0.16713881843354822 75 495 84 409 79 413 43 347 61 1128 8 620 62 956 41 437 30 31 55 15
5211 0.24824255002796755 0.33122472450110629 2.0360741287440112 151 178 123 0.083293069188192709 62 1884 51 847 48 766
122 -0.65011916155991334 0.67772828247120465 2.683138811860871 221 210 211 1.471296919812956 100 2345 58 2622 87 2536 73 1657 34 1725 17 1512 3 2110 61 2108 37 2638 99 2508 75 1914 62 2327 59 1761 96 1772 8 1796 32 1733 84 1792 79 1855 11 934 51 1149 81 1301 57 1200 76 922 49 1323
5209 0.20472995876569974 0.058600648117769619 1.5748237659315323 209 205 203 0.70876694727462208 79 1621 51 841 43 2299 80 2256 65 1321 77 890 26 1784 93 1108
5207 -0.59829839663352435 0.83515688697501544 2.7030377919551372 56 105 47 0.35177603547527481 79 1286 51 813
116 0.069364519362809518 1.0757702227017623 2.6116864647307461 183 178 107 1.1846284219685841 100 2311 58 2571 87 2506 34 1687 3 2090 37 2584 99 2460 75 1868 59 1736 96 1751 8 1770 84 1670 79 1743 37 2528 60 2623 11 913 51 1064 43 2378 48 973 81 1287 10 1956 63 2189 42 1025 41 1405 76 905 49 1340 55 1237 68 913 38 790
10389 -0.84311309303466475 1.0813974126101127 3.4765725010562343 1 0 0 0.92441340524369686 33 1232 7 975 36 358
111 -0.052861917341953613 0.815759678341056 2.6320206705548541 63 101 52 0.94544303242262562 100 2298 58 2563 87 2494 73 1616 34 1674 17 1467 61 2071 37 2576 99 2457 62 2283 8 1788 32 1701 79 1799 63 2180 51 1110 43 2490 48 1018 81 1283 33 1278 41 1460 50 879 18 1777 30 844 55 1272 68 934 38 810
10384 0.28082991811291214 0.58146461148413775 2.6944026912823098 55 104 51 0.91294567268666915 33 1206 7 873
5198 -0.1034061613692599 1.387472539244027 2.656511642973105 220 213 140 0.79402464129893224 79 1467 51 769 48 662 33 960
110 -0.052963537036266592 0.81493964592701418 2.6303405103117807 63 101 52 1.0406930566184651 100 2297 58 2562 87 2493 73 1615 34 1673 17 1466 3 2113 61 2070 37 2575 99 2458 75 1860 62 2282 59 1728 96 1740 8 1787 32 1700 84 1783 79 1798 60 2695 11 900 51 1109 43 2489 80 2461 48 1017 81 1282 57 1160 33 1279 65 1424 41 1459 50 880 18 1778 76 935 49 1344 30 843 55 1273
10383 0.1242587887001709 1.1915001516307175 2.614581346896546 161 215 117 1.0633729440563915 33 1200 7 859 36 211
107 0.59975400946572743 0.51001998805675897 2.2576760289453497 91 88 87 1.5762383779337321 100 2279 58 2552 87 2479 73 1605 34 1662 17 1447 3 2112 61 2074 37 2565 75 1835 62 2256 59 1760 96 1771 8 1748 32 1668 79 1783 60 2674 11 937 43 2474 48 952 26 2026 93 1352
5194 0.54155756586776127 0.71963956214527358 2.735955415263601 178 174 115 0.066793460540228292 62 1662 51 696 48 610
5193 0.65526408871299513 0.67433711966400611 2.7893979510733655 254 255 255 1.2279550259161538 79 1173 51 689 48 56 43 927
101 0.036216380507287121 0.99147444025762044 2.6176080013481369 55 99 54 0.93005491803939733 100 2260 58 2516 87 2449 73 1572 34 1621 17 1432 3 2036 61 2028 75 1801 62 2236 59 1690 96 1700 8 1728 32 1655 84 1637 79 1698 60 2565 11 866 51 1065 43 2381 80 2288 48 928 81 1262 33 1210 65 1112 41 1406 50 681 18 1640 76 906 49 1305 7 866 36 224
99 -0.17478586529328033 0.8503466147353208 2.6341187943540953 169 171 97 0.58077014909023783 100 2257 58 2510 87 2441 73 1565 34 1576 17 1427 3 2030 61 2020 62 2243 59 1682 96 1691 8 1737 32 1653 60 2632 51 1071 43 2451 80 2416 48 987 81 1218 33 1257 65 1428 57 1101 41 1415 50 848 18 1780 76 896 49 1298 30 817 55 1250
98 -0.25299683132609307 0.83007973351734909 2.6285461722624537 66 108 54 1.3423788766737605 100 2255 58 2509 87 2440 73 1563 34 1615 17 1425 3 2029 61 2018 37 2522 99 2346 75 1805 62 2245 59 1680 96 1689 8 1741 32 1650 63 2128 11 854 81 1216 41 1417 76 877 55 1252 38 771
5185 -0.51892780571214969 1.1006714659834582 2.6809889534096096 222 214 136 0.15527093200205799 60 2136 51 639
97 -0.25287473791554194 0.83021792321575638 2.6285394145893752 66 108 54 1.328869682079916 100 2254 58 2508 87 2439 73 1562 34 1614 17 1424 3 2028 61 2017 37 2521 99 2345 75 1804 62 2244 59 1679 96 1688 8 1740 32 1649 63 2127 11 853 81 1215 41 1416 76 876 49 1277 55 1251 38 770
10370 0.17231294617116963 1.0558251135867633 4.9286327326003958 0 0 0 0.94019951919140987 33 393 81 723
5184 -0.48597645518969401 0.83580895117238241 2.6789954547529269 60 98 50 0.17154483713716101 75 1307 51 632 43 1986 48 544
96 -0.048574703174275591 0.035283685938485548 1.8499763605128989 100 144 84 0.78995156315972204 100 2241 58 2479 37 2490 99 2374
10369 -0.68043591860808239 0.56319608439154412 3.0439544707667991 86 69 50 0.40098229367308963 33 727 50 482 7 670
94 -0.19089286063688141 0.69974080442059339 2.6587125928345876 62 105 50 0.52292186508323057 100 2224 58 2465 87 2402 73 1522 34 1574 17 1404 3 2002 61 1994 75 1761 59 1656 96 1671 8 1704 11 820 51 1015 43 2391 41 1424 76 880 30 790 55 1220 68 897 38 775 33 1215
10367 -0.46687381361433455 0.35420112861023301 2.852023866316884 78 133 54 0.46636997871668656 18 1398 7 656 97 1165 21 766 94 758 13 685 1 756 53 158 16 542 29 554 89 120 35 263
92 0.26113952742784297 1.0161876648716974 2.6360491049244086 138 140 77 0.8200582995568545 100 2190 58 2417 87 2362 73 1492 34 1530 17 1380 3 1974 61 1967 37 2419 99 2294 75 1701 62 2134 59 1633 96 1655 8 1667 79 1566 84 1499 63 2083 60 2433 11 792 51 948 43 2231 48 780 10 1836 41 1336 49 1257 76 854 30 758 55 1181 68 877 38 724
10365 -0.26562690507389691 0.26542896289063422 2.8104863591521423 149 131 72 0.091447991163830997 33 863 7 649 38 564
5179 -0.19531702619365215 1.1531953292489272 2.6202904531391824 151 160 99 0.053734444818351941 58 2086 51 594
10364 -0.3220527463585463 0.34581276536857569 2.7847003686942355 60 96 39 0.37134825434548741 32 1336 7 647 97 1151 30 677 38 644 78 464
91 0.19988369514826684 0.97685497525767107 2.6357891870663601 104 115 64 0.85040819247719579 100 2187 58 2416 73 1486 34 1528 3 1973 37 2418 99 2232 75 1702 59 1632 96 1650 8 1668 32 1604 84 1582 79 1645 60 2435 11 789 43 2234 79 1568 57 920 41 1274 49 1254 68 842 38 671
5178 -0.081548572007403133 1.3640755671429761 2.6330998686851839 140 169 94 0.0064587679106185205 32 1224 51 586
90 0.11617815973893106 1.203716451750787 2.6271693611497837 60 104 54 0.027193378378809668 100 2137 58 2366
89 0.22010275608037413 1.1481278011869347 2.6211776326298759 224 207 127 0.49000300955801074 100 2134 58 2355 73 1430 34 1471 17 1318 3 1928 61 1927 37 2262 99 2239 75 1616 62 2062 96 1594 8 1605 79 1418 84 1373 63 2009 60 2273 11 738 51 874 43 2087 48 631 81 1122 76 812 49 1200 30 703 41 1269 55 1041 68 795
88 -0.26736091219666425 1.054891184972474 2.6263402297152756 252 232 141 0.33881863227777981 100 2123 58 2359 87 2293 73 1418 34 1466 3 1916 99 2237 62 2091 96 1575 60 2464 43 2261 80 2213 48 813
5175 0.27010996467747805 0.87437456689114035 2.6518574106490997 53 101 51 0.74259479019129737 75 1246 51 525 43 1514 80 1043 18 214
87 -0.67772535137676948 0.84106647028979109 2.7313374507631956 181 197 101 0.8563211333202434 100 2107 58 2353 87 2285 73 1406 34 1456 17 1290 3 1894 61 1896 37 2365 99 2233 96 1430 84 1519 57 1022 77 943
10360 -0.31915495513840408 1.0090438606346837 2.6333659263150944 241 229 146 0.11939466118948294 34 1174 7 594
5174 0.36891690196540317 0.98545446122527958 2.6443109310459438 164 161 107 0.14294053399432416 62 1690 51 517
86 -0.58107030635873091 0.42803388075539106 2.2735574353518442 255 255 215 0.54873781135591793 100 2078 58 2210 87 2266 73 1382 34 1298 17 1262 61 1938 17 1349 37 2219 99 1842 75 1606 62 2161 59 1608 96 1624 8 1684 79 1644 11 685 81 942 76 784 49 1181 91 492 82 325 64 337 44 311
10359 1.2365314777757612 1.7247794286430473 3.5717120332039096 62 110 55 3.5998041138279295 18 1510 7 579
5173 0.18036899001946008 0.19844640749532949 1.8159779603245179 70 140 76 0.33361439429858775 62 1651 51 479 48 388 33 433
85 0.38137574266060348 1.407882490840765 2.6962355825166338 63 86 41 0.59597175724681251 100 2049 58 2277 87 2311 73 1442 34 1490 17 1236 3 1861 61 1730 75 1495 62 1922 59 1524 8 1321 32 1259 11 752 51 522
10358 -0.72221704502471595 0.63101351165527542 3.0907352223317157 216 191 150 0.29587275026010995 50 294 7 532
84 0.42260063881265142 1.3957912246906106 2.6972738460286387 255 255 255 0.37976915337147188 100 2048 58 2375 17 1235 3 1716 37 2379 59 1350 61 1508
10357 -0.61186763996240068 0.50238994536893611 3.0692164295805915 226 202 155 0.86510451617165907 26 1397 33 391 7 530 21 698 98 863 29 578 78 407 89 54 35 109 24 130
5171 0.57871671558782634 0.620878946726383 2.2000839200652837 201 176 154 0.4166850086034059 79 689 51 464 43 1799 48 595 33 746 76 776
2439 0.26153418193932587 1.193225475913875 2.6306353598626857 231 214 128 0.23896113700883656 34 487 37 1190 99 547
12712 0.70383873625344118 0.94144056147125144 3.033419754373436 0 0 0 3.3357468703325708 68 884 23 519
82 0.38351005196210286 1.2965678962736145 2.5799353292036589 221 208 204 0.49884456137818439 100 2039 58 2364 87 2211 73 1347 34 1383 17 1084 3 1708 61 1724 37 2367 75 1481 32 1271 84 1507 11 536 81 912 57 781 19 1161 27 1758 42 714
2438 0.16572321232714124 1.1660638055548158 2.6163988948748744 72 133 69 0.043234658983965508 87 1240 37 1189 75 428 84 335
12711 0.20560949638076911 0.31841404481766222 3.0720800788853202 0 0 0 1.0511049762057376 89 61 23 342
81 -0.72869958670669421 0.9053665238533587 2.7443602537892366 203 199 111 0.58401445505416294 100 2003 58 2079 87 1990 73 1100 34 1159 17 1014 3 1593 61 1591 37 2074 62 2024 96 1239 8 1379 32 1409 84 885 11 401 81 812 41 1075 76 516 49 727 30 467 55 955 7 634 97 1022 38 519 94 635 98 824 13 835
10354 -0.7624608614682522 0.70250094728638501 2.8204906403820207 117 87 60 0.53271284533964947 65 774 7 506 97 1055 1 650
5168 0.3508650998815791 0.23090496169049618 1.7251325451999935 76 137 70 0.21371322812604412 62 1629 51 454 86 628 45 244
2437 0.2755079087858312 1.1874551404103657 2.629811779694863 72 117 59 0.19674939195338914 58 1214 87 1717 37 1186 11 297
12710 0.18537057120493958 0.022997569746607938 2.857451715564904 0 0 0 2.423225211243349 35 112 23 260
80 0.51844757569037403 0.93175996490266877 2.1422933476949932 65 112 56 0.66504504550446319 100 1999 58 1983 87 1945 17 1026 3 1836 61 1704 37 1990 75 1199 96 1553 8 1363 62 1648 32 1335 79 727 84 730 60 981 51 60 68 565 30 523
10353 -0.7660751962007728 0.69887454106464419 2.8126996039138445 117 87 60 1.0620822746732188 65 773 7 505 97 1054 21 844 94 859 98 998
5167 -0.70819200824476669 0.89631563591052354 2.7389096389204499 72 115 54 0.42042277304314152 60 1858 62 1603 51 429 43 1730 80 1677 65 760 93 316 50 259
12709 -0.077735357521557982 0.26741690503857318 2.7997186174291171 167 159 89 0.084338272487037111 15 102 78 137 23 86
2436 0.27487474829760616 1.1869144827251281 2.6305357317363374 72 117 59 0.29343439455852377 58 1215 87 1716 37 1185 75 417 3 1064 96 814 17 410 11 296 49 208 59 468
79 0.34583680667313177 0.86757619197825664 2.6619796738948125 61 110 57 0.4756492122576933 100 1996 58 2023 87 2174 73 1299 34 1344 17 1200 3 1820 61 1845 37 2021 75 1238 62 1689 96 1534 8 1526 32 1478 79 1198 60 1649 11 654 51 518 43 1858 80 1034 48 422 76 764 49 1157 30 544 41 1058
10352 -0.42909867458324202 0.33452161466744534 2.8046450154036671 73 107 41 0.61912740133064659 18 1181 7 502 97 1046 38 434 21 659 94 634 98 934 1 662 53 65 16 538 71 241 35 85 24 112
5166 -0.63412863272203102 1.0010712246122719 2.7038027824856954 81 141 66 0.02335804187563854 79 1004 51 421
2435 0.42769109529141958 1.2651133578044849 2.5304427196797592 120 90 57 0.11906759173357391 58 1208 37 1179 99 1189 75 402
12708 -0.9071025873245232 0.99603399976520224 3.5627702919114559 178 163 126 0.88824810949637067 16 691 29 726 71 424 78 626 89 197 35 350 24 425 38 712 55 1096 15 526 23 495 60 2187 51 660 80 1979 48 582 33 1129 65 1207 52 1037 26 1781 93 1106 6 521
78 -0.19739528909576187 0.83452768818257284 2.6362280033410959 206 198 114 0.64392193024645683 100 1992 58 2232 87 2176 3 1789 61 1809 37 2248 75 1281 59 1447 96 1469 8 1397 32 1535 79 1243 11 608 51 590 48 505 41 1189 76 795 49 1188 30 636 55 1064 38 676
5165 -0.66950335332493149 0.72289593373748218 2.6998025941041885 240 234 238 0.65304178542771685 62 1846 79 1283 51 420 48 339
77 0.54755326728363052 0.87906310963162415 2.1423048132659535 66 116 60 0.2675873014089068 100 1990 58 1973 87 2156 17 1202 3 1832 61 1696 37 1978 96 1554 8 1370 32 1344 30 529 68 706 82 238
10350 0.14571075332612318 0.81812382705930653 3.33426862437465 53 100 38 1.821121014943194 57 356 7 465
5164 -0.51766625840085745 1.3658063575322907 2.9099813233090042 209 198 195 0.42735276220681773 62 1191 51 418 48 321 33 636
2433 -0.48034170007946242 0.86188286603246023 2.6708270936683305 135 170 87 1.0761169581252019 58 1182 37 1167 60 1798 34 372
12706 0.017665408235186947 0.27123838215415585 2.7913687553383499 79 133 57 0.3234983546871224 29 325 71 50 78 382 1 520 35 81 24 240 23 313 58 347 87 988 73 161 34 220 37 354 75 257 43 1084 100 912 17 580 62 959 6 351 20 188 40 55 85 110 66 105 82 252 64 185 64 269
76 -0.02445688558375031 0.82394257809752436 2.6291408057755081 45 92 47 0.37733570816230005 100 1987 58 2230 87 2173 73 1287 34 1338 17 1193 3 1802 61 1823 37 2245 75 1468 62 1955 59 1468 96 1488 8 1531 32 1456 84 1365 79 1416 60 2050 11 619 51 748 43 2103 80 1846 48 655 33 966 41 1188 76 720 49 1115 30 646 55 1066 68 843 81 1098 7 708 38 505
2432 -0.45300498577746007 0.86226557463562647 2.6676603836908432 116 159 81 0.067622613233512222 34 371 37 1166
75 -0.27423111213467122 0.80858216999120447 2.6452555192316427 75 112 57 0.36935994938810229 100 1986 58 2231 73 1281 34 1336 17 1189 75 1484 59 1558 96 1456 32 1446 11 598
5162 -0.53147387601365104 1.1368501195395153 2.6908112809635969 225 222 141 0.46930979625063407 3 1385 17 781 59 1094 51 405 48 313 41 526
2431 0.14305096765714889 1.0750874200637692 2.61626856336615 73 133 68 0.12509477349135173 58 1185 37 1164
74 0.56770759640917112 0.83109577530626533 2.1463600713938309 72 118 63 0.47219841628059694 100 1981 58 1966 87 2150 73 1283 34 1323 17 1196 3 1827 61 1858 99 2091 59 1540 96 1557 8 1378 32 1486 30 653 68 802
10347 -0.12503770205784526 1.1668854533656841 2.7716214869743392 102 180 79 2.3967904835728686 74 1012 86 537 7 375
2430 -0.088138478493929223 0.97504292321537167 2.613656790541603 163 173 102 0.11058755596016528 61 987 37 1148 62 1482 81 265
12703 0.23848081092216714 0.29556335573239118 2.7992900924521615 120 133 66 1.2125565446147577 1 114 4 411 23 322 30 451 68 651 49 911 55 883 6 353 20 204 28 308 85 126 66 125 82 197
2429 0.40016649552994099 1.0851648788967365 2.6510479358216084 169 158 101 0.139788689535289 58 1177 37 1138 84 292
12702 0.56986220610213512 0.50972816880584348 2.9383874042334308 114 105 82 1.7970207754568386 35 72 23 401 1 646 89 45
2428 -0.29708810944306718 0.8388888704774955 2.6462684459901995 220 206 121 0.057652831015446666 58 1161 37 1134
12701 0.13187065555724944 0.24368552050946363 2.8102585535463986 203 187 106 0.9142056258257073 30 590 55 1020 38 553 24 325 23 458 1 744 78 547 35 305 6 426 44 444 14 444 31 123 40 378 70 149 47 253 28 469 66 178 64 284
5158 -0.63823732014502987 0.49303729797120199 2.2740935778132778 255 253 202 0.2103993867615383 62 1569 51 381 48 311 43 1654
2427 -0.69213649416236911 0.67913369917580513 2.6714806673794533 243 236 239 0.23107846668926857 73 247 37 1129 99 1560 63 945 10 812 74 217
70 0.18470038130928482 0.11861039706332643 1.7110905562575875 66 125 66 0.44589298015930096 100 1904 58 2160 87 2092 73 1206 34 1260 17 883 37 2164 99 1779 75 1387 62 1876 79 1356 60 2197 11 349 51 678 43 2043 48 597 57 468 25 1680 19 479
10343 0.43561044492053336 0.96232091626819904 2.1702984524538613 79 109 49 0.31082243962436629 50 42 7 310 97 427
5157 -0.3221701276126131 1.0052072190369485 2.6352009811526438 234 216 134 0.0022132147585670722 87 1676 51 347
2426 0.038689961017215585 0.7929589736484185 2.640937352535595 66 124 59 0.28513613021673828 34 347 37 1103 99 436
12699 0.16372184209664245 0.26914610583666132 2.5631574610991423 200 183 144 1.2198762926973621 78 721 89 292 24 526 6 603
69 0.0042764056612741297 0.036452085006743379 1.8020348219731934 65 124 67 0.45720099366197886 100 1899 58 2162 87 2090 73 1204 34 1257 17 1247 3 1723 61 1742 37 2168 99 1783 75 1396 62 1896 84 1292 79 1368 63 1562 60 2212 51 692 43 2056 80 1999 48 608 57 705 33 937 25 1310 77 638 19 489 65 1050 52 829 26 1660 93 776 50 508 18 1452 36 20 21 546 94 690 98 582 13 757
10342 0.43561044492053336 0.96232091626819904 2.1702984524538613 79 109 49 0.31082243962436629 50 43 7 309 97 426
5156 -0.35598462987891766 0.51216970007840867 2.7312998711757919 188 166 100 0.10281546094842303 61 1230 51 341
2425 0.37513272398473074 1.130102662583601 2.2087393603136074 95 84 45 0.053370614614223648 58 1125 37 1092 99 1099
12698 -0.44324552322707178 0.30807698346355428 3.100296421506092 0 0 0 0.19088321687656584 15 617 23 579
68 0.31211525991354827 1.4435402981073913 2.6745797832696652 58 100 54 0.51174263660826536 100 1881 58 2107 87 2057 73 1186 34 1233 3 1717 37 2097 75 981 62 1394 61 1509 96 1383 8 1001 32 984 84 881 79 408 63 1729 11 547 51 180 41 747 76 612 49 992 55 707 68 527 91 585 81 1055 4 683 5 676 14 356 44 350 90 160 20 238
10341 -0.84574876243521724 1.0252159328427182 3.5337096946565154 198 175 147 0.23739340545166046 33 730 7 292 97 723
5155 -0.30358536896357846 0.74880223449190719 2.6634616727783498 64 100 49 0.16701153944894973 62 1527 51 331 43 1631
2424 0.38559826884177439 1.1378945231628101 2.1997489135765935 173 160 140 0.072289668817587985 58 1126 37 1090
12697 0.040733765899943625 0.29871039935373139 2.7635608770925435 46 78 35 1.9162557085562801 24 507 6 578 82 375 64 383
2423 -0.33911227397975863 0.52230005588250727 2.723076859863403 94 153 70 0.076018519717311356 58 1097 37 1078
66 -0.037198743265448045 1.187421243542198 2.6118879590465811 80 117 62 0.4112705809910745 100 1844 58 2083 87 2023 73 1147 17 1066 61 1692 99 1938 75 1306 62 1769 96 1327 32 1246 11 490 51 577 91 547
10339 -0.26777985940977106 0.16729130587673854 2.8975897033464491 34 56 20 0.16594975893029382 18 892 7 266 97 670 21 232 94 215 98 212
65 0.10366510085774935 1.1379617657749492 2.6130557571864972 185 191 118 0.17800748494617846 100 1833 58 2068 34 1195 61 1695 62 1739 8 1346 81 877 76 587 49 979
10338 -0.54595039333579054 0.42281455552477454 2.8429973255682892 169 157 82 0.18568705105436287 18 921 7 263 97 902 21 483 94 483 98 697 13 516 1 548 16 450 29 329 78 372 35 82 24 104
5152 -0.21150010045406592 0.49452600017147075 2.7212414222198986 60 102 45 0.052510415261950882 75 340 51 299
2421 -0.41734259920059191 0.3428540668884178 2.7887565061959885 127 137 81 0.47279376698025405 34 229 37 1058 99 392
12694 -0.27067870278173423 0.085170679923264159 3.0738479671269956 124 92 61 1.8927860039194762 24 475 23 524 6 555
64 0.45878334485660899 1.1395768073670196 2.1852998464268829 255 255 253 0.77845440740741945 100 1832 58 2345 17 801 3 1466 87 1993 61 1492 37 2350 59 1367
10337 -0.54587878000855683 0.42358139519562282 2.8433083604859157 169 157 82 0.19053913295622965 18 922 7 262 97 903 1 547 16 449 29 328 78 373 35 83 24 105
63 0.12890647120763868 1.0635955658642091 2.6156674817209087 56 103 54 0.18335524129829106 100 1822 58 2056 87 2001 73 1130 34 1182 17 1044 3 1665 61 1685 37 2050 99 1914 75 1276 62 1729 96 1349 8 1356 32 1274 51 549 48 451 81 875 41 1040 76 597 49 989 30 508 55 926 42 809 68 698
10336 -0.32030598491754048 0.22860148923772586 2.8727466683727956 34 57 20 0.39270670167588528 18 1183 7 261 97 898 21 226 94 477 1 558 16 318 29 356 78 402 35 105
2419 0.48004208793084691 0.50630604810679969 2.7626468345696176 128 173 84 0.25529121529167126 58 1058 37 1031 79 223 60 364
12692 -0.15721225173404627 0.11623180444646207 2.6958630793317786 255 251 198 1.4827853206716084 24 458 23 518 6 564 88 529 28 485 82 329 64 371 83 40
62 0.29264468491067575 1.0367649332366151 2.6340479102358723 54 90 43 0.32220640820213459 100 1818 58 2046 87 1995 73 1318 34 1180 17 1042 3 1670 61 1689 37 2039 99 1911 75 1256 62 1703 96 1527 8 1509 32 1299 84 1140 79 1210 63 1385 60 2023 11 664 51 523 43 1866 48 429 10 1225 41 1042 76 621 49 1140 30 525 55 932
10335 -0.33326300969443157 0.25762253575403177 2.8111719747703359 176 165 102 0.54341765312671853 33 687 7 254 38 445 1 373 24 125
5149 -0.071934936159613314 0.66669721146919503 2.6567870505769475 61 106 48 0.017260946769847185 32 1083 51 254
2418 0.61798650801063104 0.60079414477344761 2.6513340253117006 96 83 53 0.26118633532062996 58 1581 37 1023 84 759 79 199 75 208
12691 0.60566665079798265 0.29747985774369984 1.7718952507144208 128 108 82 0.6012533734989336 15 560 23 506
61 -0.056307773303161973 0.99043395516697441 2.6088821459635101 57 99 55 0.20319201882868634 100 1814 58 2054 34 1171 3 1642 96 1322
10334 -0.7167674527282899 0.60244302005056827 2.7455802275072232 190 167 132 0.3191713876135237 18 924 55 271 7 253 21 207
5148 0.018988241796721345 0.43513024642476927 2.7248868967584912 140 136 77 0.30986957890122646 59 1216 51 220 43 1553
2417 0.17584738897963378 0.36491097296996311 2.7619948090124846 174 180 94 0.19770545778141857 58 1042 37 1020 79 255 60 1086
12690 0.21799128023761813 0.024295164901819516 1.5407697458095264 59 37 16 0.83704417194218839 15 530 23 503 2 458 92 352 9 337 28 479 85 249 72 202 83 1 83 26
29 -0.72159101141608684 0.84296640054954253 2.7562860274999199 178 153 88 0.24715396382245891 100 1092 58 567 87 510 73 306 17 275 3 883 61 833 37 547 75 534 62 1201 59 636 96 547 32 610 41 608 49 437 38 138 7 219
10302 1.0661689799210641 1.4955510707472133 3.7066040458966691 77 112 54 2.004123719186472 18 837 7 126
5116 0.47696323477173685 0.5612356727543496 2.7480208955349776 69 119 58 0.39000226202383803 3 1783 61 1810 59 1525 96 1547 8 1569 32 1507 11 637 100 1738 87 1920 73 1065 34 1126 17 968 75 1198 62 1668 51 505 43 1476 48 414 33 781 42 681 45 132
2385 0.20711474107913022 0.06409487220226516 1.5206785905782152 79 54 28 0.25027429153001596 58 2 37 787 99 788
28 -0.7289981547252552 0.77060213692192681 2.7924896488460673 76 115 49 0.27718530521668089 100 1072 58 540 34 353 17 259 61 805 43 1744
2384 -0.1457060082894171 1.5763491472359523 2.9707227630927031 232 206 180 0.32202149447179329 58 807 37 772
5114 -0.16084244110906806 0.6442780705870309 2.6792707415368033 69 119 55 0.87201349044339216 100 2290 87 2488 73 1610 34 1609 17 1457 3 2060 61 2056 75 1856 62 2290 59 1717 96 1731 8 1798 32 1706 79 1800 11 893 58 2558 37 2573 51 1114 43 2491 48 1027 81 1241 41 1471 76 933 49 1345 30 850 91 807
2383 0.25013732592052096 1.6670629069141307 3.0644418690122821 236 241 254 0.22056873244351741 58 810 37 771 84 535
12656 0.63771718739445271 0.5632508015019656 2.8928858336748786 250 228 176 0.50548790103228014 29 352 23 323
26 -0.68255765671946311 0.65142712303735439 2.6438599496381192 109 88 68 0.61761021975312635 100 1033 58 1139 87 1097 73 238 34 301 3 193 61 786 37 1646 99 1550 59 14 96 18 8 336 32 119 63 939 81 80 10 801 74 210 42 81
2381 -0.05546914458630943 1.5807899304674367 2.9621302253536892 195 164 136 0.34090614071467673 58 1373 37 762 79 534 42 298
123 -0.31492493548996736 -0.014812446129809947 2.2564844415147993 0 0 0 2.1433785800532394 100 2351 58 2624 87 2545 73 1660 34 1728 17 1516 3 2115 61 2114 37 2639 99 2507 75 1923 59 1773 96 1783 8 1830 32 1742 84 1796 63 2281
10396 0.27008936113594828 0.39448549051339332 2.3676528170995277 100 142 89 1.8869011248033385 58 2489 37 2500 99 2389 84 1662 63 2171 10 1941 57 1093 25 2292 77 1033 19 1422 27 2036 52 1362 26 1970 65 1339 93 1297 86 1134 74 1559 45 671
5210 0.51168899564556292 0.75240901501380475 2.1790216424134417 70 116 44 0.19213835692410322 62 1880 51 844 48 758
10297 1.156017285953852 1.6189778534634567 3.5987468913234975 162 161 113 2.3996848136630171 18 810 7 88
24 0.59771919524609907 0.36507166062873236 1.8355035906324184 187 198 150 0.13258501546473636 100 880 58 885 87 892 73 109 17 103 37 856 75 73
5111 0.19922975327589529 0.50205800584494187 2.7145383836977306 58 108 53 0.31213402530254208 100 1727 17 956 3 1573 61 1589 62 1699 96 1354 8 1574 32 1498 11 441 87 1910 73 1049 79 791 75 801 60 1087 51 529 48 454 81 554 33 802
2380 -0.067837063041438869 1.5753015099739995 2.9533093595936313 136 116 93 0.47718636491890898 58 802 87 773 37 759 99 767 63 1167 10 1032 74 848
12653 -0.14027610272922597 0.24036901055695525 2.8080094585793551 103 124 59 0.13786703778455114 15 354 23 312 28 194 66 95 85 99
23 -0.1896134264051893 0.063882700697183561 2.353454673683395 180 179 190 0.2874931501595076 100 840 58 944 73 67 34 93 37 1495 99 916 86 86 74 594
2379 -0.2378400786617817 1.5302413433664288 2.9005442175827958 105 87 67 0.18068751588840057 58 797 37 758 99 1319
12652 -0.11896979455773252 0.2520892197131932 2.8048313696941674 89 115 55 0.21075222603942048 15 353 23 311 85 98 66 94 28 195
121 -0.1656088273423901 0.17062967359617107 2.5778024831857911 185 183 191 1.5002754177392805 100 2340 58 2612 37 2629
10394 -0.32139545123145097 1.0978802656398856 2.6345784598110962 115 195 86 0.51785106078179133 10 865 7 106
10295 0.15905578229664777 1.4691977260140532 2.6449494154663036 124 232 118 0.096414967547223868 33 770 7 40
22 0.25416988306582144 0.13228988013155785 1.6786489251371439 176 171 127 0.16228475082218011 100 827 58 845 87 822 73 40 34 38 17 41 3 748 37 809 99 806 75 46 62 770 84 20 79 38 63 46 43 818 80 783 81 22
5109 -0.53588874714400825 0.48739705377278664 2.2808408969730198 255 252 235 0.91360160823425485 87 1901 73 1024 34 1076 37 1983 99 2085 11 352 100 1367 17 600 3 801 59 1071 96 567 8 1209 32 693 81 943 45 417 42 758 91 619
2377 -0.36983572046159474 1.4677833636131188 2.8613020124788351 92 84 47 0.077464869394943361 87 762 37 747 99 741
119 0.15247040471296605 1.1266141686417215 2.6152243357091249 95 123 68 1.0385933656769326 100 2317 58 2574 87 2512 34 1695 3 2092 61 2096 37 2588 99 2464 75 1870 62 2278 59 1743 96 1755 8 1764 32 1692 84 1735 79 1804 63 2237 60 2621 11 918 51 1056 43 2437 48 969 33 1199 74 1623 10 1959 41 1403 50 765 7 860 97 1198 36 209
10392 -0.50257757720166463 0.5532794186303468 2.7425850017175426 74 122 56 0.21773882503827582 100 1399 87 1573 17 629 3 1229 61 1225 59 1083 7 471 58 1110 73 219
5206 -0.46040726350048733 0.99600814770561519 2.6603239274570067 66 108 54 0.15653609347959904 37 2272 62 2002 51 802 48 711
10293 0.48955664073294958 0.83036736270274858 2.1918136408876641 140 133 67 0.47483314498242879 18 639 33 32 7 21 97 431 21 46 94 40 98 383 13 66
20 0.039179680026282804 0.002988402495355813 1.6766746170017786 164 155 155 0.75297164783243009 100 796 58 1392 87 793 73 8 34 594 37 1397 99 797 75 55 84 18 79 608 63 731 60 871 80 803 81 8 10 643 86 9 25 765 19 19 65 35 52 14 26 681 93 12 42 7
5107 0.15724316916243472 1.1500478525210844 2.6120437773407565 84 91 53 0.96888580250824352 58 1697 87 1708 11 264 17 794 37 1697 49 556 41 486 30 79
2376 -0.89711075896124015 1.0098121369020301 3.5471302198659997 165 142 115 0.29539464944327953 34 500 37 746 75 619
118 0.15373463115988531 1.1267045805542804 2.6211076024050088 95 123 68 0.83694234684169444 100 2316 58 2573 87 2511 34 1694 3 2093 61 2097 37 2587 99 2465 75 1869 62 2279 96 1756 8 1765 32 1693 84 1734 79 1803 60 2620 11 917 51 1057 43 2438 48 970 81 1290 42 1028
10391 -0.39704665037583919 0.46770637779901381 2.7490675483600042 185 163 95 0.23308842126931326 100 967 17 158 32 745 96 612 30 175 49 521 7 467 50 208 18 863 97 627
5205 -0.41224802817983253 1.1872197598360861 2.6572571825160045 232 217 137 0.10810931951208569 87 2208 51 801
10292 0.35601243161494178 0.066528669105008584 1.9588010243574132 113 162 99 0.94738047265523151 79 626 67 387
19 -0.2571088263188232 1.2399035424062468 2.6401212120232578 93 151 73 0.18367528913584857 100 683 58 666
2375 -0.60863844747967577 1.2901511869835847 3.0186733618099981 93 77 59 0.084251742830013424 58 781 37 738 84 543
117 -0.01800120102132928 1.1122749399548364 2.6155339420759876 58 99 54 1.0170158995358751 100 2315 58 2577 73 1633 34 1691 17 1488 3 2088 61 2092 99 2463 75 1877 62 2285 59 1731 96 1742 8 1767 32 1689 79 1808 60 2630 11 911 43 2445 80 2412 81 1285 57 1104 77 987 65 1358 42 1021
10390 -0.073196697081264112 0.96014073355579344 2.8965589598007289 98 121 56 0.1590014907909181 18 1903 97 1410
10291 0.12688512068169869 1.5778612998489592 2.7313778241477 74 154 87 0.051489062048484746 74 441 67 264
